# .PCD v0.7 - Point Cloud Data file format
VERSION 0.7
FIELDS x y z
SIZE 4 4 4
TYPE F F F
COUNT 1 1 1
WIDTH 1334
HEIGHT 1
VIEWPOINT 0 0 0 1 0 0 0
POINTS 1334
DATA ascii
-0.09236984 -1.8813069 0.77469975
-0.59341908 -1.8813082 0.77469909
-0.84517562 -1.7552178 0.83290035
-0.91292912 -1.881309 0.77469873
-1.7767355 -3.5596755 -6.7949295e-06
-1.7836939 -3.5596755 -6.7949295e-06
-1.7906523 -3.5596755 -6.7949295e-06
-1.7976106 -3.5596755 -6.7949295e-06
-1.804569 -3.5596755 -6.7949295e-06
-1.8115274 -3.5596755 -6.7949295e-06
-1.8184857 -3.5596755 -6.7949295e-06
-1.8254441 -3.5596755 -6.7949295e-06
-1.8324026 -3.5596757 -6.7949295e-06
-1.839361 -3.5596757 -6.7949295e-06
-1.8463193 -3.5596757 -6.7949295e-06
-1.8532777 -3.5596757 -6.7949295e-06
-1.860236 -3.5596757 -6.7949295e-06
-1.8671944 -3.5596757 -6.7949295e-06
-1.8741553 -3.5596802 -9.059906e-06
-1.8811136 -3.5596802 -9.059906e-06
-1.888072 -3.5596802 -9.059906e-06
-1.8950304 -3.5596802 -9.059906e-06
-1.9019887 -3.5596802 -9.059906e-06
-1.9089471 -3.5596802 -9.059906e-06
-1.9159056 -3.5596807 -9.1791153e-06
-1.922864 -3.5596807 -9.1791153e-06
-1.9298223 -3.5596807 -9.1791153e-06
-1.9367807 -3.5596807 -9.1791153e-06
-1.9437391 -3.5596807 -9.1791153e-06
-1.9506974 -3.5596807 -9.1791153e-06
-1.9576558 -3.5596807 -9.1791153e-06
-1.9646142 -3.5596807 -9.1791153e-06
-1.9715725 -3.5596807 -9.1791153e-06
-1.978531 -3.5596807 -9.1791153e-06
-1.9854866 -3.5596762 -7.0333481e-06
-1.9924451 -3.5596762 -7.0333481e-06
-1.9994034 -3.5596762 -7.0333481e-06
-2.0063617 -3.5596762 -7.0333481e-06
-2.01332 -3.5596762 -7.0333481e-06
-2.0202785 -3.5596762 -7.0333481e-06
-2.0272367 -3.5596762 -7.0333481e-06
-2.0341952 -3.5596762 -7.0333481e-06
-2.0411534 -3.5596762 -7.0333481e-06
-2.0481119 -3.5596762 -7.0333481e-06
-2.0550704 -3.5596762 -7.1525574e-06
-2.0620286 -3.5596762 -7.1525574e-06
-2.0689871 -3.5596762 -7.1525574e-06
-2.0759454 -3.5596762 -7.1525574e-06
-2.0829036 -3.5596762 -7.1525574e-06
-2.0898621 -3.5596762 -7.1525574e-06
-2.0968204 -3.5596762 -7.1525574e-06
-2.1037788 -3.5596762 -7.1525574e-06
-2.1107371 -3.5596762 -7.1525574e-06
-2.1176956 -3.5596762 -7.1525574e-06
-2.1246538 -3.5596762 -7.1525574e-06
-2.1316123 -3.5596764 -7.2717667e-06
-2.1385708 -3.5596764 -7.2717667e-06
-2.145529 -3.5596764 -7.2717667e-06
-2.1524875 -3.5596764 -7.2717667e-06
-2.1594458 -3.5596764 -7.2717667e-06
-2.1664042 -3.5596764 -7.2717667e-06
-2.1733625 -3.5596764 -7.2717667e-06
-2.180321 -3.5596764 -7.2717667e-06
-2.1872792 -3.5596764 -7.2717667e-06
-2.1942406 -3.5596814 -9.4175339e-06
-2.2011991 -3.5596814 -9.4175339e-06
2.2368476 -3.5431736 -7.390976e-06
2.2299151 -3.5431731 -7.1525574e-06
2.2229829 -3.5431731 -7.1525574e-06
2.2160509 -3.5431733 -7.2717667e-06
2.2091198 -3.5431752 -8.225441e-06
2.2021859 -3.5431726 -6.9141388e-06
2.195255 -3.5431747 -7.9870224e-06
2.1883214 -3.5431724 -6.7949295e-06
2.1813903 -3.5431743 -7.7486038e-06
2.1744566 -3.5431721 -6.6757202e-06
2.1675258 -3.543174 -7.6293945e-06
2.1605933 -3.5431738 -7.5101852e-06
2.153661 -3.5431738 -7.5101852e-06
2.1467288 -3.5431736 -7.390976e-06
2.1397963 -3.5431736 -7.390976e-06
2.1328642 -3.5431736 -7.390976e-06
2.1259332 -3.5431752 -8.225441e-06
2.1189995 -3.5431731 -7.1525574e-06
2.1120684 -3.5431752 -8.225441e-06
2.1051347 -3.5431726 -6.9141388e-06
2.0982037 -3.5431747 -7.9870224e-06
2.0912714 -3.5431747 -7.9870224e-06
2.0843379 -3.5431724 -6.7949295e-06
2.0774069 -3.5431745 -7.8678131e-06
2.070473 -3.5431719 -6.5565109e-06
2.0635421 -3.5431738 -7.5101852e-06
2.0566099 -3.5431738 -7.5101852e-06
2.0496774 -3.5431736 -7.390976e-06
2.0427451 -3.5431733 -7.2717667e-06
2.0358129 -3.5431736 -7.390976e-06
2.0288804 -3.5431731 -7.1525574e-06
2.0219481 -3.5431731 -7.1525574e-06
2.0150158 -3.5431728 -7.0333481e-06
2.0080848 -3.543175 -8.1062317e-06
2.0011511 -3.5431724 -6.7949295e-06
1.9942201 -3.5431747 -7.9870224e-06
1.9872866 -3.5431724 -6.7949295e-06
1.9803554 -3.5431743 -7.7486038e-06
1.9734231 -3.543174 -7.6293945e-06
1.9664921 -3.5431762 -8.7022781e-06
1.9595572 -3.5431714 -6.5565109e-06
1.9526261 -3.5431736 -7.390976e-06
1.945694 -3.5431736 -7.390976e-06
1.9387628 -3.5431755 -8.4638596e-06
1.9318304 -3.5431752 -8.225441e-06
1.9248968 -3.5431731 -7.1525574e-06
1.9179646 -3.5431728 -7.0333481e-06
1.9110335 -3.543175 -8.1062317e-06
1.9041013 -3.543175 -8.1062317e-06
1.8971689 -3.5431747 -7.9870224e-06
1.8902354 -3.5431724 -6.7949295e-06
1.8833029 -3.5431719 -6.7949295e-06
1.8763719 -3.543174 -7.6293945e-06
1.8694395 -3.5431738 -7.5101852e-06
1.8625084 -3.5431759 -8.5830688e-06
1.8555738 -3.5431714 -6.5565109e-06
1.8486427 -3.5431736 -7.390976e-06
1.8417102 -3.5431733 -7.2717667e-06
1.8347791 -3.5431752 -8.225441e-06
1.8278469 -3.5431752 -8.225441e-06
1.8209133 -3.5431728 -7.0333481e-06
1.8139811 -3.5431728 -7.0333481e-06
1.80705 -3.543175 -8.1062317e-06
1.8001175 -3.5431745 -7.8678131e-06
1.7931865 -3.5431769 -9.1791153e-06
1.7862518 -3.5431719 -6.7949295e-06
1.7793206 -3.543174 -7.6293945e-06
1.7723882 -3.5431738 -7.5101852e-06
1.7654573 -3.5431762 -8.7022781e-06
1.7585226 -3.5431714 -6.5565109e-06
1.7515914 -3.5431736 -7.390976e-06
1.7446591 -3.5431733 -7.2717667e-06
1.7377279 -3.5431752 -8.225441e-06
0.91362673 -1.8726921 0.77470136
0.75447249 -1.8726927 0.77470106
0.70968968 -1.7697471 0.82244354
0.46521056 -1.5955727 0.90321934
0.41084367 -1.872694 0.77470052
0.22955239 -1.7233812 0.8439464
0.22564761 -1.7185967 0.84616518
0.18977806 -1.7241368 0.84359592
0.20104904 -1.872695 0.77470005
0.11785455 -1.8726951 0.77469999
-0.067573011 -1.5298733 0.93368834
-0.091940343 -1.8726956 0.77469975
-0.59110796 -1.8726969 0.77469921
-0.84865516 -1.7471992 0.83290052
-1.7769126 -3.5431709 -6.3180923e-06
-1.7838447 -3.5431709 -6.3180923e-06
-1.790777 -3.5431709 -6.3180923e-06
-1.7977092 -3.5431709 -6.3180923e-06
-1.8046414 -3.5431709 -6.3180923e-06
-1.8115737 -3.5431712 -6.4373016e-06
-1.8185085 -3.5431759 -8.5830688e-06
-1.8254408 -3.5431759 -8.5830688e-06
-1.8323729 -3.5431759 -8.5830688e-06
-1.8393052 -3.5431759 -8.5830688e-06
-1.8462374 -3.5431759 -8.5830688e-06
-1.8531697 -3.5431759 -8.5830688e-06
-1.8601019 -3.5431759 -8.5830688e-06
-1.8670342 -3.5431759 -8.5830688e-06
-1.8739663 -3.5431759 -8.5830688e-06
-1.8808986 -3.5431759 -8.5830688e-06
-1.887831 -3.5431762 -8.7022781e-06
-1.8947632 -3.5431762 -8.7022781e-06
-1.9016955 -3.5431762 -8.7022781e-06
-1.9086276 -3.5431762 -8.7022781e-06
-1.9155599 -3.5431762 -8.7022781e-06
-1.9224921 -3.5431762 -8.7022781e-06
-1.9294244 -3.5431762 -8.7022781e-06
-1.9363567 -3.5431762 -8.7022781e-06
-1.9432888 -3.5431762 -8.7022781e-06
-1.9502211 -3.5431762 -8.7022781e-06
-1.9571533 -3.5431762 -8.7022781e-06
-1.9640857 -3.5431764 -8.8214874e-06
-1.971018 -3.5431764 -8.8214874e-06
-1.9779501 -3.5431764 -8.8214874e-06
-1.9848825 -3.5431764 -8.8214874e-06
-1.9918147 -3.5431764 -8.8214874e-06
-1.9987468 -3.5431764 -8.8214874e-06
-2.0056789 -3.5431764 -8.8214874e-06
-2.0126112 -3.5431764 -8.8214874e-06
-2.0195434 -3.5431764 -8.8214874e-06
-2.0264757 -3.5431764 -8.8214874e-06
-2.0334082 -3.5431767 -8.9406967e-06
-2.0403402 -3.5431767 -8.9406967e-06
-2.0472724 -3.5431767 -8.9406967e-06
-2.0542047 -3.5431767 -8.9406967e-06
-2.061137 -3.5431767 -8.9406967e-06
-2.0680692 -3.5431767 -8.9406967e-06
-2.0750015 -3.5431767 -8.9406967e-06
-2.0819337 -3.5431767 -8.9406967e-06
-2.088866 -3.5431767 -8.9406967e-06
-2.0957983 -3.5431767 -8.9406967e-06
-2.1027305 -3.5431767 -8.9406967e-06
-2.1096599 -3.5431721 -6.6757202e-06
-2.1165922 -3.5431721 -6.6757202e-06
-2.1235244 -3.5431721 -6.6757202e-06
-2.1304564 -3.5431721 -6.6757202e-06
-2.1373918 -3.5431769 -9.059906e-06
-2.1443241 -3.5431769 -9.059906e-06
-2.1512561 -3.5431769 -9.059906e-06
-2.1581883 -3.5431769 -9.059906e-06
-2.1651206 -3.5431769 -9.059906e-06
-2.1720529 -3.5431769 -9.059906e-06
-2.1789851 -3.5431769 -9.059906e-06
-2.1859176 -3.5431769 -9.1791153e-06
-2.1928499 -3.5431769 -9.1791153e-06
2.2285621 -3.5267949 -8.1062317e-06
2.2216568 -3.5267966 -8.8214874e-06
2.2147501 -3.5267956 -8.3446503e-06
2.2078447 -3.5267971 -9.059906e-06
2.2009377 -3.5267963 -8.7022781e-06
2.194031 -3.5267954 -8.225441e-06
2.1871257 -3.5267968 -9.059906e-06
2.1802187 -3.5267961 -8.5830688e-06
2.1733134 -3.5267975 -9.1791153e-06
2.1664066 -3.5267968 -8.9406967e-06
2.1594999 -3.5267959 -8.4638596e-06
2.1525943 -3.5267973 -9.1791153e-06
2.1456876 -3.5267966 -8.8214874e-06
2.1387823 -3.526798 -9.4175339e-06
2.1318753 -3.5267971 -9.059906e-06
2.12497 -3.5267985 -9.7751617e-06
2.1180618 -3.5267954 -8.225441e-06
2.111156 -3.5267966 -8.8214874e-06
2.1042495 -3.5267961 -8.5830688e-06
2.0973442 -3.5267975 -9.1791153e-06
2.0904386 -3.526799 -1.001358e-05
2.0835304 -3.5267959 -8.4638596e-06
2.0766249 -3.5267968 -9.059906e-06
2.0697184 -3.5267966 -8.8214874e-06
2.0628128 -3.5267978 -9.2983246e-06
2.0559046 -3.5267947 -7.8678131e-06
2.0489991 -3.5267959 -8.4638596e-06
2.0420921 -3.5267949 -8.1062317e-06
2.035187 -3.5267968 -8.9406967e-06
2.0282815 -3.5267982 -9.5367432e-06
2.021373 -3.5267949 -7.9870224e-06
2.0144677 -3.5267963 -8.7022781e-06
2.007561 -3.5267956 -8.3446503e-06
2.0006557 -3.5267971 -9.059906e-06
1.9937501 -3.5267985 -9.7751617e-06
1.9868418 -3.5267951 -8.225441e-06
1.9799351 -3.5267944 -7.7486038e-06
1.9730297 -3.5267961 -8.5830688e-06
1.9661243 -3.5267975 -9.1791153e-06
1.9592186 -3.5267987 -9.894371e-06
1.9523106 -3.5267956 -8.3446503e-06
1.9454038 -3.5267949 -7.9870224e-06
1.9384984 -3.5267966 -8.8214874e-06
1.9315929 -3.526798 -9.4175339e-06
1.9246873 -3.526799 -1.001358e-05
1.9177779 -3.5267935 -7.2717667e-06
1.9108725 -3.5267949 -8.1062317e-06
1.9039671 -3.5267968 -9.059906e-06
1.8970615 -3.526798 -9.4175339e-06
1.8901559 -3.5267994 -1.013279e-05
1.8832467 -3.526794 -7.5101852e-06
1.8763413 -3.5267959 -8.4638596e-06
1.8694357 -3.5267968 -9.059906e-06
1.8625301 -3.5267985 -9.6559525e-06
1.8556234 -3.5267975 -9.1791153e-06
1.8487154 -3.5267944 -7.7486038e-06
1.84181 -3.5267961 -8.5830688e-06
1.8349043 -3.5267973 -9.1791153e-06
1.8279989 -3.5267987 -9.894371e-06
1.8210921 -3.526798 -9.4175339e-06
1.8141841 -3.5267949 -7.9870224e-06
1.8072786 -3.5267963 -8.7022781e-06
1.8003731 -3.5267978 -9.2983246e-06
1.7934663 -3.5267968 -9.059906e-06
1.7865608 -3.5267985 -9.6559525e-06
1.7796526 -3.5267949 -7.9870224e-06
1.7727473 -3.5267968 -8.9406967e-06
1.7658417 -3.5267982 -9.5367432e-06
1.7589351 -3.5267973 -9.1791153e-06
1.7520272 -3.5267942 -7.6293945e-06
1.7451216 -3.5267956 -8.3446503e-06
1.738216 -3.5267971 -9.059906e-06
0.91389459 -1.8641454 0.77470136
0.75173217 -1.864146 0.774701
0.71141666 -1.7724257 0.81743801
0.40938896 -1.8641474 0.77470046
0.25082982 -1.8641479 0.77470016
0.22887856 -1.7163615 0.84356105
0.1866557 -1.7245779 0.83973265
0.11749594 -1.8641485 0.77469993
-0.06774687 -1.5313349 0.92977393
-0.091514073 -1.864149 0.77469963
-0.5888142 -1.8641502 0.77469915
-1.7770913 -3.5267963 -8.7022781e-06
-1.7839977 -3.5267963 -8.7022781e-06
-1.7909039 -3.5267963 -8.7022781e-06
-1.7978102 -3.5267963 -8.7022781e-06
-1.8047165 -3.5267963 -8.7022781e-06
-1.8116229 -3.5267966 -8.8214874e-06
-1.8185292 -3.5267966 -8.8214874e-06
-1.8254355 -3.5267966 -8.8214874e-06
-1.8323418 -3.5267966 -8.8214874e-06
-1.8392481 -3.5267966 -8.8214874e-06
-1.8461545 -3.5267966 -8.8214874e-06
-1.8530607 -3.5267966 -8.8214874e-06
-1.859967 -3.5267966 -8.8214874e-06
-1.8668733 -3.5267966 -8.8214874e-06
-1.8737797 -3.5267966 -8.8214874e-06
-1.880686 -3.5267968 -8.9406967e-06
-1.8875923 -3.5267968 -8.9406967e-06
-1.8944986 -3.5267968 -8.9406967e-06
-1.901405 -3.5267968 -8.9406967e-06
-1.9083112 -3.5267968 -8.9406967e-06
-1.9152175 -3.5267968 -8.9406967e-06
-1.9221238 -3.5267968 -8.9406967e-06
-1.9290302 -3.5267968 -8.9406967e-06
-1.9359365 -3.5267968 -8.9406967e-06
-1.9428427 -3.5267968 -8.9406967e-06
-1.949749 -3.5267968 -8.9406967e-06
-1.9566555 -3.5267968 -9.059906e-06
-1.9635618 -3.5267968 -9.059906e-06
-1.970468 -3.5267968 -9.059906e-06
-1.9773744 -3.5267968 -9.059906e-06
-1.9842778 -3.526792 -6.6757202e-06
-1.9911841 -3.526792 -6.6757202e-06
-1.9980906 -3.526792 -6.6757202e-06
-2.0049968 -3.526792 -6.6757202e-06
-2.011903 -3.526792 -6.6757202e-06
-2.0188093 -3.526792 -6.6757202e-06
-2.0257156 -3.5267923 -6.7949295e-06
-2.0326221 -3.5267923 -6.7949295e-06
-2.0395284 -3.5267923 -6.7949295e-06
-2.0464346 -3.5267923 -6.7949295e-06
-2.0533409 -3.5267923 -6.7949295e-06
-2.0602472 -3.5267923 -6.7949295e-06
-2.0671535 -3.5267923 -6.7949295e-06
-2.0740597 -3.5267923 -6.7949295e-06
-2.080966 -3.5267923 -6.7949295e-06
-2.0878751 -3.5267971 -9.059906e-06
-2.0947816 -3.5267971 -9.059906e-06
-2.1016879 -3.5267971 -9.059906e-06
-2.1085942 -3.5267973 -9.1791153e-06
-2.1155005 -3.5267973 -9.1791153e-06
-2.122407 -3.5267973 -9.1791153e-06
-2.1293132 -3.5267973 -9.1791153e-06
-2.1362195 -3.5267973 -9.1791153e-06
-2.1431258 -3.5267973 -9.1791153e-06
-2.150032 -3.5267973 -9.1791153e-06
-2.1569383 -3.5267973 -9.1791153e-06
-2.1638446 -3.5267973 -9.1791153e-06
-2.1707511 -3.5267973 -9.1791153e-06
-2.1776574 -3.5267975 -9.1791153e-06
-2.1845636 -3.5267975 -9.1791153e-06
2.2203414 -3.5105429 -1.0728836e-05
2.2134583 -3.5105391 -8.9406967e-06
2.2065783 -3.5105398 -9.1791153e-06
2.1996977 -3.51054 -9.2983246e-06
2.1928177 -3.5105405 -9.6559525e-06
2.1859376 -3.5105414 -1.013279e-05
2.1790559 -3.5105398 -9.1791153e-06
2.1721756 -3.5105402 -9.5367432e-06
2.1652956 -3.510541 -9.894371e-06
2.1584153 -3.5105417 -1.013279e-05
2.151535 -3.5105422 -1.0251999e-05
2.1446521 -3.5105381 -8.3446503e-06
2.1377718 -3.5105386 -8.7022781e-06
2.1308932 -3.5105417 -1.013279e-05
2.1240129 -3.5105422 -1.0371208e-05
2.1171329 -3.5105431 -1.0848045e-05
2.11025 -3.5105391 -8.9406967e-06
2.1033697 -3.5105398 -9.1791153e-06
2.0964892 -3.51054 -9.2983246e-06
2.0896091 -3.5105405 -9.6559525e-06
2.0827291 -3.5105414 -1.013279e-05
2.0758474 -3.5105398 -9.1791153e-06
2.0689673 -3.5105402 -9.5367432e-06
2.0620871 -3.510541 -9.894371e-06
2.055207 -3.5105419 -1.013279e-05
2.0483241 -3.5105379 -8.225441e-06
2.0414436 -3.5105381 -8.3446503e-06
2.034565 -3.510541 -9.894371e-06
2.0276847 -3.5105417 -1.013279e-05
2.0208046 -3.5105424 -1.0490417e-05
2.0139217 -3.5105386 -8.5830688e-06
2.0070415 -3.5105391 -8.9406967e-06
2.0001612 -3.5105398 -9.1791153e-06
1.993281 -3.5105402 -9.5367432e-06
1.9864007 -3.5105407 -9.7751617e-06
1.9795191 -3.5105391 -8.9406967e-06
1.972639 -3.5105398 -9.1791153e-06
1.9657588 -3.5105402 -9.5367432e-06
1.9588785 -3.510541 -9.894371e-06
1.9519985 -3.5105419 -1.013279e-05
1.9451157 -3.5105379 -8.225441e-06
1.9382367 -3.5105407 -9.7751617e-06
1.9313563 -3.510541 -9.894371e-06
1.9244763 -3.5105419 -1.013279e-05
1.917596 -3.5105424 -1.0490417e-05
1.9107132 -3.5105386 -8.5830688e-06
1.903833 -3.5105391 -8.9406967e-06
1.8969527 -3.5105398 -9.1791153e-06
1.8900727 -3.5105405 -9.6559525e-06
1.8831935 -3.5105431 -1.0848045e-05
1.8763107 -3.5105391 -8.9406967e-06
1.8694305 -3.5105398 -9.1791153e-06
1.8625504 -3.5105402 -9.5367432e-06
1.8556702 -3.5105412 -1.001358e-05
1.84879 -3.5105419 -1.013279e-05
1.8419086 -3.5105402 -9.4175339e-06
1.8350283 -3.5105407 -9.7751617e-06
1.828148 -3.5105412 -1.001358e-05
1.8212677 -3.5105419 -1.013279e-05
1.8143876 -3.5105424 -1.0490417e-05
1.8075048 -3.5105386 -8.5830688e-06
1.8006246 -3.5105391 -8.9406967e-06
1.7937444 -3.51054 -9.2983246e-06
1.7868655 -3.5105429 -1.0728836e-05
1.7799852 -3.5105436 -1.1086464e-05
1.7731024 -3.5105391 -8.9406967e-06
1.7662221 -3.5105398 -9.1791153e-06
1.759342 -3.5105405 -9.6559525e-06
1.7524618 -3.5105412 -1.001358e-05
1.7455803 -3.5105395 -9.1791153e-06
1.7387002 -3.5105402 -9.4175339e-06
0.91416043 -1.8556625 0.77470124
0.74901229 -1.8556631 0.774701
0.71319854 -1.7752329 0.81235337
0.4079451 -1.8556644 0.7747004
0.24997692 -1.8556648 0.77470011
0.18636046 -1.7199833 0.83821774
0.19612412 -1.8556651 0.77469999
0.11714 -1.8556653 0.77469987
-0.067921408 -1.5328022 0.92584431
-0.091090977 -1.8556659 0.77469969
-0.58653754 -1.8556671 0.77469909
-1.7772676 -3.5105414 -1.013279e-05
-1.7841482 -3.5105414 -1.013279e-05
-1.7910287 -3.5105414 -1.013279e-05
-1.7979093 -3.5105414 -1.013279e-05
-1.8047899 -3.5105414 -1.013279e-05
-1.8116704 -3.5105414 -1.013279e-05
-1.8185509 -3.5105414 -1.013279e-05
-1.8254317 -3.5105417 -1.013279e-05
-1.8323122 -3.5105417 -1.013279e-05
-1.8391927 -3.5105417 -1.013279e-05
-1.8460734 -3.5105417 -1.013279e-05
-1.8529514 -3.5105367 -7.8678131e-06
-1.8598319 -3.5105367 -7.8678131e-06
-1.8667125 -3.5105367 -7.8678131e-06
-1.873593 -3.5105367 -7.8678131e-06
-1.8804736 -3.5105367 -7.8678131e-06
-1.8873541 -3.5105367 -7.8678131e-06
-1.8942348 -3.5105369 -7.9870224e-06
-1.9011154 -3.5105369 -7.9870224e-06
-1.9079959 -3.5105369 -7.9870224e-06
-1.9148765 -3.5105369 -7.9870224e-06
-1.921757 -3.5105369 -7.9870224e-06
-1.9286376 -3.5105369 -7.9870224e-06
-1.9355181 -3.5105369 -7.9870224e-06
-1.9423987 -3.5105369 -7.9870224e-06
-1.9492793 -3.5105369 -7.9870224e-06
-1.9561598 -3.5105369 -7.9870224e-06
-1.9630404 -3.5105369 -7.9870224e-06
-1.969921 -3.5105374 -7.9870224e-06
-1.9768016 -3.5105374 -7.9870224e-06
-1.9836823 -3.5105374 -7.9870224e-06
-1.9905628 -3.5105374 -7.9870224e-06
-1.9974433 -3.5105374 -7.9870224e-06
-2.0043237 -3.5105374 -7.9870224e-06
-2.0112042 -3.5105374 -7.9870224e-06
-2.0180848 -3.5105374 -7.9870224e-06
-2.0249653 -3.5105374 -7.9870224e-06
-2.0318487 -3.5105422 -1.0251999e-05
-2.0387294 -3.5105422 -1.0251999e-05
-2.04561 -3.5105422 -1.0371208e-05
-2.0524905 -3.5105422 -1.0371208e-05
-2.0593712 -3.5105422 -1.0371208e-05
-2.0662518 -3.5105422 -1.0371208e-05
-2.0731323 -3.5105422 -1.0371208e-05
-2.0800128 -3.5105422 -1.0371208e-05
-2.0868933 -3.5105422 -1.0371208e-05
-2.0937741 -3.5105422 -1.0371208e-05
-2.1006546 -3.5105422 -1.0371208e-05
-2.1075323 -3.5105376 -8.1062317e-06
-2.1144128 -3.5105379 -8.225441e-06
-2.1212935 -3.5105379 -8.225441e-06
-2.1281741 -3.5105379 -8.225441e-06
-2.1350546 -3.5105379 -8.225441e-06
-2.1419351 -3.5105379 -8.225441e-06
-2.1488156 -3.5105379 -8.225441e-06
-2.1556962 -3.5105379 -8.225441e-06
-2.1625767 -3.5105379 -8.225441e-06
-2.1694574 -3.5105379 -8.225441e-06
-2.176338 -3.5105379 -8.225441e-06
2.2121758 -3.4944026 -9.1791153e-06
2.2053192 -3.4944 -7.9870224e-06
2.1984639 -3.4943998 -7.9870224e-06
2.1916103 -3.4944019 -8.8214874e-06
2.1847551 -3.4944015 -8.5830688e-06
2.1779013 -3.4944034 -9.5367432e-06
2.1710443 -3.4944005 -8.1062317e-06
2.1641893 -3.4944005 -8.1062317e-06
2.1573355 -3.4944022 -8.9406967e-06
2.1504803 -3.4944019 -8.8214874e-06
2.1436265 -3.4944038 -9.7751617e-06
2.1367683 -3.4943986 -7.390976e-06
2.1299148 -3.494401 -8.3446503e-06
2.1230593 -3.4944003 -7.9870224e-06
2.1162055 -3.4944024 -9.059906e-06
2.1093516 -3.4944041 -9.894371e-06
2.1024938 -3.4943993 -7.7486038e-06
2.0956399 -3.4944015 -8.5830688e-06
2.0887847 -3.494401 -8.3446503e-06
2.0819309 -3.4944029 -9.2983246e-06
2.0750754 -3.4944024 -9.059906e-06
2.0682189 -3.4943998 -7.9870224e-06
2.0613649 -3.4944017 -8.7022781e-06
2.0545099 -3.4944015 -8.5830688e-06
2.0476561 -3.4944034 -9.5367432e-06
2.0407979 -3.4943981 -7.0333481e-06
2.0339441 -3.4944003 -7.9870224e-06
2.0270891 -3.4944 -7.9870224e-06
2.0202351 -3.4944019 -8.8214874e-06
2.0133812 -3.4944038 -9.894371e-06
2.0065231 -3.4943986 -7.390976e-06
1.9996694 -3.494401 -8.3446503e-06
1.9928142 -3.4944005 -8.1062317e-06
1.9859602 -3.4944024 -9.059906e-06
1.979105 -3.4944022 -8.9406967e-06
1.9722484 -3.4943991 -7.6293945e-06
1.9653946 -3.4944015 -8.5830688e-06
1.9585392 -3.4944007 -8.225441e-06
1.9516854 -3.4944029 -9.2983246e-06
1.9448301 -3.4944022 -8.9406967e-06
1.9379739 -3.4944 -7.9870224e-06
1.9311185 -3.4943993 -7.7486038e-06
1.9242647 -3.4944017 -8.7022781e-06
1.9174093 -3.494401 -8.3446503e-06
1.9105555 -3.4944031 -9.4175339e-06
1.9036989 -3.4944003 -7.9870224e-06
1.8968437 -3.4943998 -7.9870224e-06
1.8899897 -3.4944019 -8.8214874e-06
1.8831345 -3.4944015 -8.5830688e-06
1.8762808 -3.4944038 -9.7751617e-06
1.8694229 -3.4943984 -7.1525574e-06
1.862569 -3.4944005 -8.1062317e-06
1.8557149 -3.4944022 -8.9406967e-06
1.8488598 -3.4944022 -8.9406967e-06
1.842006 -3.4944041 -9.894371e-06
1.8351482 -3.4943988 -7.5101852e-06
1.8282943 -3.494401 -8.3446503e-06
1.821439 -3.4944005 -8.1062317e-06
1.814585 -3.4944024 -9.059906e-06
1.807731 -3.4944043 -1.001358e-05
1.8008734 -3.4943993 -7.7486038e-06
1.7940195 -3.4944015 -8.5830688e-06
1.7871642 -3.494401 -8.3446503e-06
1.7803102 -3.4944029 -9.2983246e-06
1.7734551 -3.4944029 -9.2983246e-06
1.7665986 -3.4943998 -7.9870224e-06
1.7597448 -3.4944022 -8.9406967e-06
1.7528894 -3.4944015 -8.5830688e-06
1.7460356 -3.4944038 -9.7751617e-06
1.7391779 -3.4943986 -7.2717667e-06
1.7323239 -3.4944005 -8.1062317e-06
0.74631256 -1.847243 0.774701
0.71548748 -1.7792962 0.80665845
0.70634919 -1.76502 0.81337297
0.4065119 -1.8472443 0.77470034
0.24913034 -1.8472447 0.77470016
0.18624273 -1.7171963 0.83586586
0.19547753 -1.847245 0.77470005
0.1167867 -1.8472455 0.77469987
-0.068096623 -1.5342754 0.92189932
-0.090671025 -1.8472459 0.77469963
-0.58070093 -1.8472471 0.77469903
-0.55078101 -1.7479494 0.82140183
-1.7842921 -3.4943967 -6.3180923e-06
-1.791147 -3.4943967 -6.3180923e-06
-1.798002 -3.4943967 -6.3180923e-06
-1.804857 -3.4943967 -6.3180923e-06
-1.811712 -3.4943967 -6.3180923e-06
-1.818567 -3.4943967 -6.3180923e-06
-1.825422 -3.4943967 -6.3180923e-06
-1.8322771 -3.4943967 -6.3180923e-06
-1.8391321 -3.4943967 -6.3180923e-06
-1.8459872 -3.4943969 -6.4373016e-06
-1.8528421 -3.4943969 -6.4373016e-06
-1.8596971 -3.4943969 -6.4373016e-06
-1.8665521 -3.4943969 -6.4373016e-06
-1.8734071 -3.4943969 -6.4373016e-06
-1.8802621 -3.4943969 -6.4373016e-06
-1.8871171 -3.4943969 -6.4373016e-06
-1.8939722 -3.4943969 -6.4373016e-06
-1.9008272 -3.4943969 -6.4373016e-06
-1.9076822 -3.4943969 -6.4373016e-06
-1.9145372 -3.4943969 -6.4373016e-06
-1.9213922 -3.4943969 -6.5565109e-06
-1.9282472 -3.4943969 -6.5565109e-06
-1.9351022 -3.4943969 -6.5565109e-06
-1.9419572 -3.4943969 -6.5565109e-06
-1.9488122 -3.4943969 -6.5565109e-06
-1.9556673 -3.4943969 -6.5565109e-06
-1.9625223 -3.4943969 -6.5565109e-06
-1.9693773 -3.4943969 -6.5565109e-06
-1.976235 -3.4944019 -8.8214874e-06
-1.9830872 -3.4943969 -6.5565109e-06
-1.9899422 -3.4943969 -6.5565109e-06
-1.9967974 -3.4943972 -6.6757202e-06
-2.0036523 -3.4943972 -6.6757202e-06
-2.0105073 -3.4943972 -6.6757202e-06
-2.0173624 -3.4943972 -6.6757202e-06
-2.0242174 -3.4943972 -6.6757202e-06
-2.0310721 -3.4943972 -6.6757202e-06
-2.0379272 -3.4943972 -6.6757202e-06
-2.0447822 -3.4943972 -6.6757202e-06
-2.0516372 -3.4943972 -6.6757202e-06
-2.0584922 -3.4943972 -6.6757202e-06
-2.0653474 -3.4943974 -6.7949295e-06
-2.0722024 -3.4943974 -6.7949295e-06
-2.0790575 -3.4943974 -6.7949295e-06
-2.0859125 -3.4943974 -6.7949295e-06
-2.0927675 -3.4943974 -6.7949295e-06
-2.0996225 -3.4943974 -6.7949295e-06
-2.1064775 -3.4943974 -6.7949295e-06
-2.1133323 -3.4943974 -6.7949295e-06
-2.1201873 -3.4943974 -6.7949295e-06
-2.1270423 -3.4943974 -6.7949295e-06
-2.1338973 -3.4943974 -6.7949295e-06
-2.1407526 -3.4943976 -6.9141388e-06
-2.1476076 -3.4943976 -6.9141388e-06
-2.1544626 -3.4943976 -6.9141388e-06
-2.1613176 -3.4943976 -6.9141388e-06
-2.1681726 -3.4943976 -6.9141388e-06
2.2040749 -3.4783881 -1.0728836e-05
2.1972425 -3.478384 -8.7022781e-06
2.1904135 -3.478385 -9.1791153e-06
2.1835842 -3.4783857 -9.5367432e-06
2.1767552 -3.4783866 -1.001358e-05
2.1699259 -3.4783871 -1.0371208e-05
2.1630938 -3.4783835 -8.3446503e-06
2.1562645 -3.478384 -8.7022781e-06
2.1494358 -3.4783854 -9.4175339e-06
2.1426065 -3.4783857 -9.5367432e-06
2.1357775 -3.4783869 -1.013279e-05
2.1289454 -3.4783831 -8.225441e-06
2.1221161 -3.4783838 -8.4638596e-06
2.1152871 -3.4783847 -9.059906e-06
2.1084578 -3.4783854 -9.4175339e-06
2.1016288 -3.4783862 -9.7751617e-06
2.0947981 -3.4783845 -8.9406967e-06
2.0879691 -3.4783854 -9.4175339e-06
2.08114 -3.4783864 -9.894371e-06
2.0743108 -3.4783871 -1.0371208e-05
2.0674815 -3.4783878 -1.0609627e-05
2.0606496 -3.478384 -8.7022781e-06
2.0538204 -3.478385 -9.1791153e-06
2.0469913 -3.4783857 -9.5367432e-06
2.0401621 -3.4783864 -9.894371e-06
2.0333302 -3.4783828 -8.225441e-06
2.0265012 -3.4783838 -8.4638596e-06
2.0196719 -3.4783845 -8.9406967e-06
2.0128427 -3.4783854 -9.4175339e-06
2.0060134 -3.4783859 -9.6559525e-06
1.9991815 -3.4783821 -7.8678131e-06
1.9923522 -3.4783828 -8.225441e-06
1.9855248 -3.4783864 -9.894371e-06
1.9786953 -3.4783869 -1.013279e-05
1.9718663 -3.4783878 -1.0609627e-05
1.9650342 -3.4783838 -8.5830688e-06
1.9582051 -3.4783847 -9.059906e-06
1.951376 -3.4783854 -9.4175339e-06
1.9445468 -3.4783864 -9.894371e-06
1.9377177 -3.4783871 -1.0371208e-05
1.9308857 -3.4783833 -8.225441e-06
1.9240568 -3.4783845 -8.9406967e-06
1.9172275 -3.4783852 -9.2983246e-06
1.9103984 -3.4783859 -9.6559525e-06
1.903569 -3.4783866 -1.001358e-05
1.8967372 -3.4783828 -8.225441e-06
1.8899081 -3.4783838 -8.4638596e-06
1.8830789 -3.4783845 -8.9406967e-06
1.8762496 -3.4783852 -9.2983246e-06
1.8694204 -3.4783859 -9.6559525e-06
1.8625901 -3.4783847 -9.059906e-06
1.8557609 -3.4783854 -9.4175339e-06
1.8489317 -3.4783864 -9.894371e-06
1.8421024 -3.4783871 -1.0251999e-05
1.8352731 -3.4783878 -1.0609627e-05
1.8284414 -3.4783838 -8.5830688e-06
1.8216124 -3.4783852 -9.2983246e-06
1.814783 -3.4783854 -9.4175339e-06
1.807954 -3.4783866 -1.001358e-05
1.8011245 -3.4783871 -1.0251999e-05
1.794293 -3.4783838 -8.4638596e-06
1.7874637 -3.4783843 -8.8214874e-06
1.7806345 -3.4783852 -9.2983246e-06
1.7738053 -3.4783859 -9.6559525e-06
1.766976 -3.4783866 -1.001358e-05
1.7601446 -3.4783833 -8.225441e-06
1.7533152 -3.4783838 -8.5830688e-06
1.7464873 -3.4783871 -1.0251999e-05
1.7396579 -3.4783876 -1.0490417e-05
1.7328264 -3.4783838 -8.5830688e-06
0.91112268 -1.8388847 0.77470124
0.74363285 -1.8388852 0.77470094
0.718409 -1.7849244 0.80019897
0.70797437 -1.7674525 0.80845493
0.40508932 -1.8388866 0.77470034
0.23368548 -1.7234339 0.82925498
0.18624826 -1.7156618 0.83292758
0.11643603 -1.8388877 0.77469981
-0.068277977 -1.535844 0.91789651
-0.09025418 -1.8388882 0.77469957
-0.57847112 -1.8388894 0.77469903
-0.5502975 -1.7448972 0.8191129
-1.7844397 -3.4783802 -7.0333481e-06
-1.7912693 -3.4783802 -7.0333481e-06
-1.7980989 -3.4783802 -7.0333481e-06
-1.8049285 -3.4783802 -7.0333481e-06
-1.8117582 -3.4783802 -7.0333481e-06
-1.8185879 -3.4783804 -7.1525574e-06
-1.8254176 -3.4783804 -7.1525574e-06
-1.8322473 -3.4783804 -7.1525574e-06
-1.8390769 -3.4783804 -7.1525574e-06
-1.8459065 -3.4783804 -7.1525574e-06
-1.8527361 -3.4783804 -7.1525574e-06
-1.8595657 -3.4783804 -7.1525574e-06
-1.8663955 -3.4783804 -7.1525574e-06
-1.8732251 -3.4783804 -7.1525574e-06
-1.8800547 -3.4783804 -7.1525574e-06
-1.8868843 -3.4783804 -7.1525574e-06
-1.8937141 -3.4783807 -7.2717667e-06
-1.9005438 -3.4783807 -7.2717667e-06
-1.9073734 -3.4783807 -7.2717667e-06
-1.914203 -3.4783807 -7.2717667e-06
-1.9210354 -3.4783854 -9.4175339e-06
-1.927865 -3.4783854 -9.4175339e-06
-1.9346946 -3.4783854 -9.4175339e-06
-1.9415243 -3.4783854 -9.4175339e-06
-1.948354 -3.4783854 -9.4175339e-06
-1.9551836 -3.4783854 -9.4175339e-06
-1.9620132 -3.4783854 -9.4175339e-06
-1.968843 -3.4783857 -9.5367432e-06
-1.9756727 -3.4783857 -9.5367432e-06
-1.9825023 -3.4783857 -9.5367432e-06
-1.9893321 -3.4783857 -9.5367432e-06
-1.9961616 -3.4783857 -9.5367432e-06
-2.0029912 -3.4783857 -9.5367432e-06
-2.0098207 -3.4783857 -9.5367432e-06
-2.0166504 -3.4783857 -9.5367432e-06
-2.0234802 -3.4783857 -9.5367432e-06
-2.0303097 -3.4783857 -9.5367432e-06
-2.0371394 -3.4783857 -9.5367432e-06
-2.0439692 -3.4783859 -9.6559525e-06
-2.0507989 -3.4783859 -9.6559525e-06
-2.0576284 -3.4783859 -9.6559525e-06
-2.0644581 -3.4783859 -9.6559525e-06
-2.0712879 -3.4783859 -9.6559525e-06
-2.0781174 -3.4783859 -9.6559525e-06
-2.0849471 -3.4783859 -9.6559525e-06
-2.0917768 -3.4783859 -9.6559525e-06
-2.0986063 -3.4783859 -9.6559525e-06
-2.105433 -3.4783812 -7.390976e-06
-2.112263 -3.4783814 -7.5101852e-06
-2.1190925 -3.4783814 -7.5101852e-06
-2.1259222 -3.4783814 -7.5101852e-06
-2.1327517 -3.4783814 -7.5101852e-06
-2.1395814 -3.4783814 -7.5101852e-06
-2.1464112 -3.4783814 -7.5101852e-06
-2.1532407 -3.4783814 -7.5101852e-06
-2.1600704 -3.4783814 -7.5101852e-06
2.1960285 -3.4624839 -8.4638596e-06
2.1892221 -3.4624808 -7.0333481e-06
2.1824188 -3.4624827 -7.9870224e-06
2.1756139 -3.462482 -7.6293945e-06
2.1688108 -3.4624844 -8.7022781e-06
2.1620076 -3.4624863 -9.5367432e-06
2.1551998 -3.462481 -7.0333481e-06
2.1483965 -3.4624827 -7.9870224e-06
2.1415918 -3.4624822 -7.7486038e-06
2.1347883 -3.4624841 -8.5830688e-06
2.1279852 -3.4624863 -9.5367432e-06
2.1211774 -3.4624808 -7.0333481e-06
2.1143739 -3.4624825 -7.8678131e-06
2.1075695 -3.4624822 -7.7486038e-06
2.1007662 -3.4624846 -8.7022781e-06
2.0939629 -3.4624863 -9.5367432e-06
2.0871551 -3.4624808 -7.0333481e-06
2.0803518 -3.4624827 -7.9870224e-06
2.0735483 -3.4624846 -8.7022781e-06
2.0667439 -3.4624844 -8.7022781e-06
2.0599403 -3.462486 -9.4175339e-06
2.0531328 -3.462481 -7.0333481e-06
2.0463295 -3.4624827 -7.9870224e-06
2.039526 -3.4624846 -8.7022781e-06
2.0327213 -3.4624844 -8.7022781e-06
2.0259154 -3.4624813 -7.2717667e-06
2.0191104 -3.4624808 -7.0333481e-06
2.0123069 -3.4624825 -7.8678131e-06
2.0055037 -3.4624846 -8.7022781e-06
1.9986988 -3.4624841 -8.5830688e-06
1.9918928 -3.4624813 -7.2717667e-06
1.985088 -3.4624808 -7.0333481e-06
1.9782846 -3.4624827 -7.9870224e-06
1.9714813 -3.4624848 -8.8214874e-06
1.9646765 -3.4624844 -8.7022781e-06
1.9578704 -3.4624813 -7.1525574e-06
1.9510669 -3.4624832 -7.9870224e-06
1.9442621 -3.4624825 -7.8678131e-06
1.937459 -3.4624848 -8.9406967e-06
1.9306542 -3.4624844 -8.7022781e-06
1.9238482 -3.4624813 -7.2717667e-06
1.9170446 -3.4624832 -8.1062317e-06
1.9102398 -3.4624825 -7.8678131e-06
1.9034365 -3.4624848 -8.8214874e-06
1.8966317 -3.4624841 -8.5830688e-06
1.8898257 -3.4624813 -7.1525574e-06
1.8830222 -3.4624832 -7.9870224e-06
1.8762177 -3.4624832 -7.9870224e-06
1.8694142 -3.4624848 -8.8214874e-06
1.8626095 -3.4624844 -8.7022781e-06
1.8558034 -3.4624813 -7.1525574e-06
1.8489999 -3.4624832 -7.9870224e-06
1.8421953 -3.4624827 -7.9870224e-06
1.8353918 -3.4624846 -8.7022781e-06
1.8285871 -3.4624841 -8.5830688e-06
1.8217812 -3.4624813 -7.2717667e-06
1.8149776 -3.4624832 -8.1062317e-06
1.8081731 -3.4624832 -7.9870224e-06
1.8013694 -3.4624848 -8.8214874e-06
1.7945659 -3.4624865 -9.6559525e-06
1.7877587 -3.4624813 -7.1525574e-06
1.7809552 -3.4624832 -7.9870224e-06
1.7741506 -3.4624827 -7.9870224e-06
1.767347 -3.4624846 -8.7022781e-06
1.7605436 -3.4624865 -9.7751617e-06
1.7537364 -3.4624813 -7.1525574e-06
1.746933 -3.4624834 -8.225441e-06
1.7401283 -3.4624827 -7.9870224e-06
1.7333246 -3.4624846 -8.7022781e-06
0.91139573 -1.8305885 0.77470124
0.72136301 -1.7906196 0.79367566
0.7096073 -1.7698966 0.80351353
0.40367723 -1.8305905 0.77470028
0.25100642 -1.8305911 0.77470005
0.23279198 -1.714779 0.82967949
0.19774911 -1.8305911 0.77469999
0.11608793 -1.8305914 0.77469987
-0.06858737 -1.5395122 0.91288388
-0.089840405 -1.830592 0.77469951
-0.17505217 -1.8305923 0.77469939
-0.17860267 -1.8305923 0.77469939
-0.24606197 -1.8305924 0.77469933
-0.24961247 -1.8305924 0.77469933
-0.57625782 -1.8305932 0.77469897
-0.54981476 -1.7418503 0.81682789
-1.7845842 -3.4624784 -5.8412552e-06
-1.7913886 -3.4624784 -5.8412552e-06
-1.7981932 -3.4624786 -6.0796738e-06
-1.8049977 -3.4624786 -6.0796738e-06
-1.811802 -3.4624786 -6.0796738e-06
-1.8186065 -3.4624786 -6.0796738e-06
-1.825411 -3.4624786 -6.0796738e-06
-1.8322154 -3.4624786 -6.0796738e-06
-1.8390199 -3.4624786 -6.0796738e-06
-1.8458244 -3.4624786 -6.0796738e-06
-1.8526288 -3.4624786 -6.0796738e-06
-1.8594333 -3.4624786 -6.0796738e-06
-1.8662378 -3.4624786 -6.0796738e-06
-1.8730448 -3.4624834 -8.225441e-06
-1.8798494 -3.4624836 -8.3446503e-06
-1.8866539 -3.4624836 -8.3446503e-06
-1.8934584 -3.4624836 -8.3446503e-06
-1.9002628 -3.4624836 -8.3446503e-06
-1.9070673 -3.4624836 -8.3446503e-06
-1.9138718 -3.4624836 -8.3446503e-06
-1.9206762 -3.4624836 -8.3446503e-06
-1.9274807 -3.4624836 -8.3446503e-06
-1.9342852 -3.4624836 -8.3446503e-06
-1.9410896 -3.4624836 -8.3446503e-06
-1.9478942 -3.4624836 -8.3446503e-06
-1.9546988 -3.4624839 -8.4638596e-06
-1.9615033 -3.4624839 -8.4638596e-06
-1.9683077 -3.4624839 -8.4638596e-06
-1.9751122 -3.4624839 -8.4638596e-06
-1.9819139 -3.4624791 -6.1988831e-06
-1.9887184 -3.4624791 -6.1988831e-06
-1.9955229 -3.4624791 -6.1988831e-06
-2.0023272 -3.4624791 -6.1988831e-06
-2.0091317 -3.4624791 -6.1988831e-06
-2.0159361 -3.4624791 -6.1988831e-06
-2.0227406 -3.4624794 -6.1988831e-06
-2.0295451 -3.4624794 -6.1988831e-06
-2.0363495 -3.4624794 -6.1988831e-06
-2.043154 -3.4624794 -6.1988831e-06
-2.0499585 -3.4624794 -6.1988831e-06
-2.0567629 -3.4624794 -6.1988831e-06
-2.0635674 -3.4624794 -6.1988831e-06
-2.0703719 -3.4624794 -6.1988831e-06
-2.0771763 -3.4624794 -6.1988831e-06
-2.0839808 -3.4624794 -6.1988831e-06
-2.0907853 -3.4624794 -6.1988831e-06
-2.0975897 -3.4624794 -6.3180923e-06
-2.1043942 -3.4624794 -6.3180923e-06
-2.1111987 -3.4624794 -6.3180923e-06
-2.1180031 -3.4624794 -6.3180923e-06
-2.1248076 -3.4624794 -6.3180923e-06
-2.1316121 -3.4624794 -6.3180923e-06
-2.1384165 -3.4624794 -6.3180923e-06
-2.145221 -3.4624794 -6.3180923e-06
-2.1520255 -3.4624794 -6.3180923e-06
2.1880472 -3.4467056 -1.0490417e-05
2.1812651 -3.4467015 -8.5830688e-06
2.1744857 -3.4467018 -8.8214874e-06
2.1677067 -3.4467025 -9.1791153e-06
2.160929 -3.4467051 -1.0371208e-05
2.1541495 -3.4467056 -1.0490417e-05
2.1473675 -3.4467013 -8.4638596e-06
2.1405883 -3.4467015 -8.7022781e-06
2.1338105 -3.4467049 -1.013279e-05
2.1270313 -3.4467051 -1.0251999e-05
2.1202521 -3.4467053 -1.0371208e-05
2.1134701 -3.4467013 -8.4638596e-06
2.1066906 -3.4467015 -8.5830688e-06
2.0999131 -3.4467046 -1.001358e-05
2.0931337 -3.4467049 -1.013279e-05
2.0863545 -3.4467051 -1.0371208e-05
2.0795724 -3.446701 -8.4638596e-06
2.0727947 -3.4467037 -9.6559525e-06
2.0660155 -3.4467044 -1.001358e-05
2.059236 -3.4467046 -1.001358e-05
2.0524571 -3.4467051 -1.0371208e-05
2.0456765 -3.4467032 -9.4175339e-06
2.038897 -3.4467032 -9.5367432e-06
2.0321178 -3.4467041 -9.894371e-06
2.0253386 -3.4467044 -1.001358e-05
2.0185566 -3.4467001 -7.9870224e-06
2.0117788 -3.446703 -9.4175339e-06
2.0049994 -3.4467032 -9.4175339e-06
1.9982202 -3.4467039 -9.7751617e-06
1.9914409 -3.4467041 -9.894371e-06
1.9846604 -3.4467022 -9.059906e-06
1.9778812 -3.4467027 -9.2983246e-06
1.9711018 -3.446703 -9.4175339e-06
1.9643227 -3.4467037 -9.6559525e-06
1.9575435 -3.4467041 -9.894371e-06
1.9507629 -3.446702 -8.9406967e-06
1.9439837 -3.4467025 -9.1791153e-06
1.9372042 -3.4467027 -9.2983246e-06
1.9304252 -3.4467032 -9.5367432e-06
1.923646 -3.4467041 -9.894371e-06
1.9168655 -3.446702 -8.9406967e-06
1.910086 -3.4467022 -9.059906e-06
1.9033067 -3.4467025 -9.1791153e-06
1.8965276 -3.4467032 -9.4175339e-06
1.8897498 -3.4467063 -1.0848045e-05
1.8829679 -3.4467018 -8.8214874e-06
1.8761885 -3.446702 -8.9406967e-06
1.8694093 -3.4467025 -9.1791153e-06
1.8626313 -3.4467053 -1.0371208e-05
1.8558522 -3.4467061 -1.0728836e-05
1.8490704 -3.4467015 -8.7022781e-06
1.842291 -3.4467018 -8.8214874e-06
1.8355118 -3.4467022 -9.059906e-06
1.8287338 -3.4467051 -1.0371208e-05
1.8219546 -3.4467058 -1.0609627e-05
1.8151729 -3.4467015 -8.5830688e-06
1.8083935 -3.4467015 -8.7022781e-06
1.8016155 -3.4467046 -1.001358e-05
1.7948363 -3.4467051 -1.0371208e-05
1.7880571 -3.4467056 -1.0490417e-05
1.7812754 -3.4467013 -8.4638596e-06
1.7744972 -3.4467039 -9.7751617e-06
1.767718 -3.4467044 -1.001358e-05
1.7609388 -3.4467051 -1.0251999e-05
1.7541595 -3.4467053 -1.0371208e-05
1.7473779 -3.446701 -8.4638596e-06
1.7405996 -3.4467037 -9.6559525e-06
1.7338204 -3.4467041 -9.894371e-06
0.91166687 -1.8223534 0.77470118
0.73479497 -1.822354 0.77470088
0.71124798 -1.7723522 0.79854846
0.70305252 -1.7604035 0.80424726
0.46404135 -1.5933764 0.88390845
0.4022755 -1.8223552 0.77470034
0.25016537 -1.8223557 0.77470005
0.23196915 -1.7066952 0.82986271
0.11574239 -1.8223562 0.77469981
-0.06889151 -1.5430845 0.90789449
-0.16017869 -1.8223572 0.77469945
-0.26630223 -1.8223573 0.77469933
-0.57406068 -1.8223581 0.77469897
-0.54933292 -1.7388085 0.81454664
-0.85580862 -1.7003024 0.83291173
-1.7915106 -3.4466999 -7.8678131e-06
-1.7982901 -3.4467001 -7.9870224e-06
-1.8050697 -3.4467001 -7.9870224e-06
-1.8118491 -3.4467001 -7.9870224e-06
-1.8186312 -3.4467051 -1.0251999e-05
-1.8254107 -3.4467051 -1.0251999e-05
-1.8321902 -3.4467051 -1.0251999e-05
-1.8389697 -3.4467051 -1.0251999e-05
-1.8457491 -3.4467051 -1.0251999e-05
-1.8525261 -3.4467001 -7.9870224e-06
-1.8593055 -3.4467001 -7.9870224e-06
-1.8660849 -3.4467001 -7.9870224e-06
-1.8728646 -3.4467003 -8.1062317e-06
-1.879644 -3.4467003 -8.1062317e-06
-1.8864236 -3.4467003 -8.1062317e-06
-1.893203 -3.4467003 -8.1062317e-06
-1.8999825 -3.4467003 -8.1062317e-06
-1.906762 -3.4467003 -8.1062317e-06
-1.9135414 -3.4467003 -8.1062317e-06
-1.920321 -3.4467003 -8.1062317e-06
-1.9271004 -3.4467003 -8.1062317e-06
-1.9338799 -3.4467003 -8.1062317e-06
-1.9406594 -3.4467003 -8.1062317e-06
-1.947439 -3.4467006 -8.225441e-06
-1.9542185 -3.4467006 -8.225441e-06
-1.9609979 -3.4467006 -8.225441e-06
-1.9677774 -3.4467006 -8.225441e-06
-1.9745569 -3.4467006 -8.225441e-06
-1.9813365 -3.4467006 -8.225441e-06
-1.9881159 -3.4467006 -8.225441e-06
-1.9948953 -3.4467006 -8.225441e-06
-2.0016747 -3.4467006 -8.225441e-06
-2.0084541 -3.4467006 -8.225441e-06
-2.0152338 -3.4467006 -8.225441e-06
-2.0220132 -3.4467008 -8.3446503e-06
-2.0287929 -3.4467008 -8.3446503e-06
-2.0355723 -3.4467008 -8.3446503e-06
-2.0423517 -3.4467008 -8.3446503e-06
-2.0491312 -3.4467008 -8.3446503e-06
-2.0559106 -3.4467008 -8.3446503e-06
-2.0626903 -3.4467008 -8.3446503e-06
-2.0694697 -3.4467008 -8.3446503e-06
-2.0762491 -3.4467008 -8.3446503e-06
-2.0830286 -3.4467008 -8.3446503e-06
-2.089808 -3.4467008 -8.3446503e-06
-2.0965877 -3.446701 -8.4638596e-06
-2.1033642 -3.4466963 -6.1988831e-06
-2.1101437 -3.4466963 -6.1988831e-06
-2.1169231 -3.4466963 -6.1988831e-06
-2.1237025 -3.4466963 -6.1988831e-06
-2.1304822 -3.4466963 -6.1988831e-06
-2.1372616 -3.4466963 -6.1988831e-06
-2.1440411 -3.4466963 -6.1988831e-06
2.1801176 -3.4310324 -7.7486038e-06
2.1733606 -3.4310286 -5.9604645e-06
2.1666064 -3.4310298 -6.4373016e-06
2.1598527 -3.4310312 -7.1525574e-06
2.1530988 -3.4310324 -7.7486038e-06
2.1463449 -3.4310336 -8.3446503e-06
2.1395881 -3.4310303 -6.6757202e-06
2.1328325 -3.4310284 -5.8412552e-06
2.1260786 -3.4310303 -6.6757202e-06
2.1193249 -3.4310315 -7.2717667e-06
2.112571 -3.4310327 -7.8678131e-06
2.105814 -3.4310291 -6.0796738e-06
2.0990603 -3.4310303 -6.7949295e-06
2.0923061 -3.4310315 -7.2717667e-06
2.0855522 -3.4310327 -7.8678131e-06
2.0787983 -3.4310336 -8.3446503e-06
2.0720413 -3.4310303 -6.6757202e-06
2.0652862 -3.4310293 -6.1988831e-06
2.0585322 -3.4310303 -6.7949295e-06
2.0517783 -3.4310317 -7.390976e-06
2.0450242 -3.4310327 -7.8678131e-06
2.0382674 -3.4310291 -6.0796738e-06
2.0315137 -3.4310305 -6.9141388e-06
2.0247595 -3.4310317 -7.390976e-06
2.0180056 -3.4310329 -7.9870224e-06
2.0112517 -3.4310338 -8.4638596e-06
2.0044947 -3.4310303 -6.7949295e-06
1.9977396 -3.4310296 -6.3180923e-06
1.9909855 -3.4310305 -6.9141388e-06
1.9842316 -3.4310319 -7.5101852e-06
1.9774748 -3.4310281 -5.7220459e-06
1.9707209 -3.4310296 -6.3180923e-06
1.963967 -3.4310308 -7.0333481e-06
1.9572129 -3.4310319 -7.5101852e-06
1.950459 -3.4310331 -7.9870224e-06
1.9437022 -3.4310296 -6.3180923e-06
1.9369483 -3.4310308 -7.0333481e-06
1.9301943 -3.4310319 -7.5101852e-06
1.9234389 -3.4310308 -7.0333481e-06
1.916685 -3.4310319 -7.5101852e-06
1.9099282 -3.4310281 -5.7220459e-06
1.9031744 -3.4310298 -6.4373016e-06
1.8964202 -3.4310308 -7.0333481e-06
1.8896663 -3.4310319 -7.5101852e-06
1.8829124 -3.4310334 -8.1062317e-06
1.8761556 -3.4310296 -6.3180923e-06
1.8694017 -3.431031 -7.0333481e-06
1.8626477 -3.4310319 -7.5101852e-06
1.8558924 -3.431031 -7.0333481e-06
1.8491384 -3.4310322 -7.6293945e-06
1.8423818 -3.4310284 -5.8412552e-06
1.8356278 -3.43103 -6.5565109e-06
1.8288738 -3.431031 -7.0333481e-06
1.8221197 -3.4310322 -7.6293945e-06
1.8153658 -3.4310336 -8.225441e-06
1.8086091 -3.43103 -6.5565109e-06
1.8018552 -3.4310312 -7.1525574e-06
1.795101 -3.4310322 -7.6293945e-06
1.7883458 -3.4310312 -7.1525574e-06
1.7815918 -3.4310322 -7.6293945e-06
1.7748352 -3.4310286 -5.9604645e-06
1.7680813 -3.4310303 -6.6757202e-06
1.7613271 -3.4310312 -7.1525574e-06
1.7545731 -3.4310324 -7.7486038e-06
1.7478189 -3.4310334 -8.1062317e-06
1.7410626 -3.4310303 -6.6757202e-06
1.7343086 -3.4310315 -7.2717667e-06
0.91193604 -1.8141783 0.77470118
0.71289653 -1.77482 0.79355967
0.70462543 -1.7627133 0.79936045
0.46495855 -1.5950991 0.87967211
0.3601892 -1.6246947 0.86549145
0.24933051 -1.8141809 0.77469999
0.23121241 -1.6991448 0.82981902
0.19998746 -1.814181 0.77469993
0.11539938 -1.8141813 0.77469981
-0.085497439 -1.8141819 0.77469945
-0.14893855 -1.814182 0.77469939
-0.27934533 -1.8141824 0.77469927
-0.57187968 -1.8141832 0.77469891
-0.54885179 -1.7357718 0.81226933
-1.7848736 -3.4310305 -6.9141388e-06
-1.7916282 -3.4310305 -6.9141388e-06
-1.7983829 -3.4310305 -6.9141388e-06
-1.8051376 -3.4310305 -6.9141388e-06
-1.8118924 -3.4310308 -7.0333481e-06
-1.818647 -3.4310308 -7.0333481e-06
-1.8254017 -3.4310308 -7.0333481e-06
-1.8321564 -3.4310308 -7.0333481e-06
-1.8389111 -3.4310308 -7.0333481e-06
-1.8456657 -3.4310308 -7.0333481e-06
-1.8524203 -3.4310308 -7.0333481e-06
-1.8591751 -3.4310308 -7.0333481e-06
-1.8659297 -3.4310308 -7.0333481e-06
-1.8726844 -3.4310308 -7.0333481e-06
-1.879439 -3.4310308 -7.0333481e-06
-1.8861939 -3.431031 -7.0333481e-06
-1.8929485 -3.431031 -7.0333481e-06
-1.8997031 -3.431031 -7.0333481e-06
-1.9064579 -3.431031 -7.0333481e-06
-1.9132125 -3.431031 -7.0333481e-06
-1.9199672 -3.431031 -7.0333481e-06
-1.9267218 -3.431031 -7.0333481e-06
-1.9334766 -3.431031 -7.0333481e-06
-1.9402312 -3.431031 -7.0333481e-06
-1.9469858 -3.431031 -7.0333481e-06
-1.9537405 -3.431031 -7.0333481e-06
-1.9604954 -3.4310312 -7.1525574e-06
-1.96725 -3.4310312 -7.1525574e-06
-1.9740019 -3.4310265 -4.8875809e-06
-1.9807566 -3.4310265 -4.8875809e-06
-1.9875113 -3.4310265 -4.8875809e-06
-1.9942659 -3.4310265 -4.8875809e-06
-2.0010204 -3.4310265 -4.8875809e-06
-2.0077751 -3.4310265 -4.8875809e-06
-2.0145297 -3.4310265 -4.8875809e-06
-2.0212843 -3.4310265 -4.8875809e-06
-2.0280392 -3.4310265 -4.8875809e-06
-2.0347939 -3.4310265 -4.8875809e-06
-2.0415485 -3.4310265 -4.8875809e-06
-2.0483031 -3.4310265 -4.8875809e-06
-2.0550578 -3.4310265 -4.8875809e-06
-2.0618124 -3.4310265 -4.8875809e-06
-2.068567 -3.4310265 -4.8875809e-06
-2.0753217 -3.4310265 -4.8875809e-06
-2.0820794 -3.4310315 -7.2717667e-06
-2.088834 -3.4310315 -7.2717667e-06
-2.0955887 -3.4310315 -7.2717667e-06
-2.1023433 -3.4310315 -7.2717667e-06
-2.1090982 -3.4310317 -7.390976e-06
-2.1158528 -3.4310317 -7.390976e-06
-2.1226075 -3.4310317 -7.390976e-06
-2.1293621 -3.4310317 -7.390976e-06
-2.136117 -3.4310317 -7.390976e-06
2.1722527 -3.4154842 -1.001358e-05
2.1655192 -3.4154792 -7.5101852e-06
2.1587901 -3.4154806 -8.3446503e-06
2.1520612 -3.4154823 -9.1791153e-06
2.1453311 -3.415482 -9.059906e-06
2.138602 -3.4154837 -9.894371e-06
2.1318703 -3.4154809 -8.5830688e-06
2.1251397 -3.4154804 -8.225441e-06
2.1184108 -3.415482 -9.059906e-06
2.1116807 -3.4154818 -8.9406967e-06
2.1049516 -3.4154835 -9.7751617e-06
2.0982196 -3.4154804 -8.225441e-06
2.0914893 -3.4154799 -7.9870224e-06
2.0847604 -3.4154816 -8.9406967e-06
2.0780315 -3.4154837 -9.894371e-06
2.0713012 -3.415483 -9.5367432e-06
2.0645692 -3.4154801 -8.1062317e-06
2.0578403 -3.415482 -9.059906e-06
2.05111 -3.4154813 -8.7022781e-06
2.0443811 -3.4154835 -9.7751617e-06
2.0376508 -3.4154828 -9.4175339e-06
2.0309188 -3.4154797 -7.8678131e-06
2.0241897 -3.4154813 -8.7022781e-06
2.0174596 -3.4154811 -8.7022781e-06
2.0107305 -3.4154828 -9.4175339e-06
2.0040016 -3.4154849 -1.0371208e-05
1.9972683 -3.4154794 -7.7486038e-06
1.9905393 -3.4154811 -8.7022781e-06
1.9838104 -3.4154832 -9.6559525e-06
1.97708 -3.4154825 -9.2983246e-06
1.9703484 -3.4154799 -7.9870224e-06
1.9636192 -3.4154813 -8.7022781e-06
1.9568888 -3.4154809 -8.4638596e-06
1.9501599 -3.4154828 -9.4175339e-06
1.9434296 -3.4154823 -9.1791153e-06
1.9366978 -3.4154794 -7.7486038e-06
1.9299688 -3.4154811 -8.7022781e-06
1.9232386 -3.4154809 -8.5830688e-06
1.9165096 -3.4154825 -9.2983246e-06
1.9097805 -3.4154847 -1.013279e-05
1.9030473 -3.4154789 -7.5101852e-06
1.8963183 -3.4154809 -8.4638596e-06
1.8895893 -3.4154825 -9.2983246e-06
1.8828591 -3.4154823 -9.1791153e-06
1.87613 -3.415484 -9.894371e-06
1.8693982 -3.4154809 -8.5830688e-06
1.862668 -3.4154806 -8.3446503e-06
1.855939 -3.4154825 -9.2983246e-06
1.8492087 -3.415482 -9.059906e-06
1.8424796 -3.4154837 -9.894371e-06
1.8357478 -3.4154806 -8.3446503e-06
1.8290174 -3.4154799 -7.9870224e-06
1.8222885 -3.415482 -9.059906e-06
1.8155594 -3.4154837 -9.894371e-06
1.8088291 -3.4154832 -9.6559525e-06
1.8020974 -3.4154804 -8.225441e-06
1.7953686 -3.4154825 -9.2983246e-06
1.7886381 -3.4154818 -8.9406967e-06
1.781909 -3.4154835 -9.7751617e-06
1.7751784 -3.4154825 -9.2983246e-06
1.768447 -3.4154799 -7.9870224e-06
1.761718 -3.415482 -9.059906e-06
1.7549877 -3.4154813 -8.7022781e-06
1.7482585 -3.415483 -9.5367432e-06
1.7415295 -3.4154851 -1.0490417e-05
1.7347966 -3.4154797 -7.8678131e-06
0.91220319 -1.8060632 0.77470112
0.70625055 -1.7651464 0.79439682
0.69889909 -1.7552668 0.79915243
0.35992837 -1.621973 0.86331475
0.2485017 -1.8060656 0.77469999
0.22743188 -1.6677934 0.84125865
0.19933857 -1.8060658 0.77469987
0.11505886 -1.8060659 0.77469975
-0.085105523 -1.8060666 0.77469951
-0.56971449 -1.8060677 0.77469891
-0.54837149 -1.7327403 0.80999583
-1.7850171 -3.4154792 -7.6293945e-06
-1.7917472 -3.4154792 -7.6293945e-06
-1.7984773 -3.4154792 -7.6293945e-06
-1.8052073 -3.4154792 -7.6293945e-06
-1.8119373 -3.4154792 -7.6293945e-06
-1.8186674 -3.4154792 -7.6293945e-06
-1.8253974 -3.4154792 -7.6293945e-06
-1.8321276 -3.4154794 -7.7486038e-06
-1.8388577 -3.4154794 -7.7486038e-06
-1.8455876 -3.4154794 -7.7486038e-06
-1.8523151 -3.4154747 -5.4836273e-06
-1.8590451 -3.4154747 -5.4836273e-06
-1.8657751 -3.4154747 -5.4836273e-06
-1.8725052 -3.4154747 -5.4836273e-06
-1.8792353 -3.4154747 -5.4836273e-06
-1.8859652 -3.4154747 -5.4836273e-06
-1.8926953 -3.4154747 -5.4836273e-06
-1.8994254 -3.4154747 -5.4836273e-06
-1.9061555 -3.4154749 -5.6028366e-06
-1.9128855 -3.4154749 -5.6028366e-06
-1.9196155 -3.4154749 -5.6028366e-06
-1.9263456 -3.4154749 -5.6028366e-06
-1.9330757 -3.4154749 -5.6028366e-06
-1.9398056 -3.4154749 -5.6028366e-06
-1.9465357 -3.4154749 -5.6028366e-06
-1.9532658 -3.4154749 -5.6028366e-06
-1.9599957 -3.4154749 -5.6028366e-06
-1.9667258 -3.4154749 -5.6028366e-06
-1.9734559 -3.4154749 -5.6028366e-06
-1.9801861 -3.4154751 -5.7220459e-06
-1.9869159 -3.4154751 -5.7220459e-06
-1.993646 -3.4154751 -5.7220459e-06
-2.000376 -3.4154751 -5.7220459e-06
-2.0071061 -3.4154751 -5.7220459e-06
-2.0138361 -3.4154751 -5.7220459e-06
-2.0205662 -3.4154751 -5.7220459e-06
-2.0272989 -3.4154799 -7.9870224e-06
-2.034029 -3.4154799 -7.9870224e-06
-2.0407591 -3.4154799 -7.9870224e-06
-2.0474892 -3.4154799 -7.9870224e-06
-2.0542192 -3.4154799 -7.9870224e-06
-2.0609493 -3.4154801 -8.1062317e-06
-2.0676794 -3.4154801 -8.1062317e-06
-2.0744095 -3.4154801 -8.1062317e-06
-2.0811396 -3.4154801 -8.1062317e-06
-2.0878696 -3.4154801 -8.1062317e-06
-2.0945997 -3.4154801 -8.1062317e-06
-2.1013296 -3.4154801 -8.1062317e-06
-2.1080596 -3.4154801 -8.1062317e-06
-2.1147897 -3.4154801 -8.1062317e-06
-2.1215198 -3.4154801 -8.1062317e-06
-2.1282499 -3.4154801 -8.1062317e-06
2.1644421 -3.4000444 -1.0251999e-05
2.1577349 -3.4000421 -9.059906e-06
2.1510293 -3.4000421 -9.059906e-06
2.144325 -3.4000442 -1.013279e-05
2.1376195 -3.4000442 -1.013279e-05
2.1309137 -3.400044 -1.001358e-05
2.1242068 -3.4000418 -8.9406967e-06
2.117501 -3.4000416 -8.8214874e-06
2.1107969 -3.400044 -1.001358e-05
2.1040912 -3.4000437 -9.894371e-06
2.0973856 -3.400044 -1.001358e-05
2.0906785 -3.4000413 -8.7022781e-06
2.0839729 -3.4000413 -8.7022781e-06
2.0772686 -3.4000435 -9.894371e-06
2.0705628 -3.4000435 -9.894371e-06
2.0638587 -3.4000461 -1.0848045e-05
2.0571504 -3.4000413 -8.5830688e-06
2.050446 -3.4000432 -9.6559525e-06
2.0437403 -3.4000432 -9.6559525e-06
